x,y,z,r,p,y
0.0420213,-0.0237486,-0.0142975,177.011,-179.694,-179.762
0.0426389,-0.022904,-0.0107988,177.049,-179.702,-179.916
0.039166,-0.0237346,-0.0114164,177.013,-179.743,-179.825
0.0398822,-0.0229179,-0.00942638,177.008,-179.59,-179.893
0.0416702,-0.0195394,-0.00809802,177.007,-179.66,-179.839
0.0440366,-0.0217911,-0.00466377,177.024,-179.624,-179.964
0.0418744,-0.0224322,-0.000180945,176.925,-179.79,-179.926
0.0398828,-0.0218632,0.000995335,177.02,-179.64,179.985
0.0407723,-0.0247801,-0.00120332,177.064,-179.757,-179.894
0.0409492,-0.0239757,-0.00136374,177.074,-179.74,-179.995
0.0407594,-0.0248744,-0.00312464,176.994,-179.711,-179.98
0.0435648,-0.0243371,-0.00394516,176.937,-179.65,-179.958
0.0471611,-0.0238997,-0.00735925,177.034,-179.605,-179.861
0.0478824,-0.0254678,-0.00809122,177.117,-179.697,-179.893
0.0498666,-0.028448,-0.00992361,177.15,-179.614,-179.955
0.0477138,-0.0278225,-0.00998539,177.131,-179.601,-179.916
0.047017,-0.0268431,-0.0101682,177.07,-179.607,-179.891
0.047429,-0.0254257,-0.0096407,176.992,-179.496,-179.937
0.0437562,-0.0263079,-0.011683,177.045,-179.734,-179.797
0.0446091,-0.0250602,-0.0111779,176.879,-179.497,-179.906
0.0429978,-0.0235472,-0.0086104,177.028,-179.709,-179.93
0.0404359,-0.0232105,-0.00437134,176.991,-179.657,-179.885
0.0430666,-0.0244686,-0.00488964,177.093,-179.557,179.992
0.0404486,-0.0230894,-0.00751563,177.058,-179.57,-179.878
0.0422484,-0.0236735,-0.00929481,177.085,-179.72,-179.928
0.0408343,-0.0255788,-0.00444021,177.027,-179.664,-179.991
0.0436296,-0.0268287,-0.00749097,177.045,-179.658,-179.97
0.0470863,-0.0266652,-0.00758555,177.042,-179.598,-179.922
0.0451826,-0.0230328,-0.0114076,176.994,-179.743,-179.755
0.0438266,-0.0227357,-0.0126303,176.992,-179.7,-179.893
0.041245,-0.0237296,-0.0075095,177.115,-179.838,-179.844
0.0427532,-0.0243878,-0.0100817,177.153,-179.716,-179.949
0.0446023,-0.0241996,-0.00819282,177.003,-179.667,-179.861
0.0443235,-0.0231678,-0.00746673,177.009,-179.602,-179.971
0.0469347,-0.0250762,-0.00664047,177.03,-179.605,-179.871
0.0442035,-0.0237023,-0.0100106,176.956,-179.768,-179.937
0.0463865,-0.0217881,-0.00999702,177.01,-179.549,-179.925
0.0473384,-0.0219329,-0.0147505,176.969,-179.541,-179.811
0.0484974,-0.02047,-0.0148024,177.049,-179.604,-179.871
0.0456468,-0.0228522,-0.0156091,177.037,-179.611,-179.738
0.0448969,-0.0240102,-0.0155396,177.034,-179.618,-179.852
0.0448335,-0.0281109,-0.0155807,177.024,-179.577,-179.874
0.039828,-0.0270155,-0.0146686,176.995,-179.773,-179.868
0.0400833,-0.0271332,-0.0145121,177.078,-179.637,-179.767
0.0411315,-0.0255199,-0.0102371,177.034,-179.678,-179.989
0.0428144,-0.0228715,-0.00751248,177.02,-179.669,-179.888
0.0403872,-0.0243429,-0.00899427,177.012,-179.689,-179.902
0.0413666,-0.0254317,-0.00846966,176.983,-179.762,-179.917
0.0334832,-0.0244372,-0.0074452,176.914,-179.661,-179.863
0.0398908,-0.0237061,-0.00899125,177.067,-179.751,-179.823
0.042466,-0.0215662,-0.00985777,177.045,-179.698,-179.807
0.0455273,-0.0202382,-0.0108158,177.076,-179.697,-179.86
0.0465806,-0.0223853,-0.0120996,177.022,-179.622,-179.785
0.0469105,-0.0204285,-0.0141353,177.012,-179.521,-179.97
0.0485091,-0.0212536,-0.0124649,177.077,-179.648,-179.774
0.0474782,-0.022735,-0.00832048,177.01,-179.524,179.968
0.0479842,-0.0217219,-0.00517264,176.869,-179.474,-179.9
0.0460363,-0.0244125,-0.00482163,177.059,-179.726,179.998
0.0494462,-0.0238476,-0.0027969,177.03,-179.419,-179.998
0.0503073,-0.0246906,-0.00456918,177.138,-179.708,-179.95
0.0480591,-0.0238198,-0.00746507,177.008,-179.503,-179.848
0.0464709,-0.0253298,-0.00875056,177.088,-179.567,-179.891
0.0439221,-0.0264934,-0.00614838,177.097,-179.627,-179.947
0.0414436,-0.0267427,-0.0085,177.095,-179.746,-179.914
0.0412461,-0.0241794,-0.00755229,176.944,-179.762,-179.887
0.0382414,-0.0207317,-0.0114245,177.011,-179.669,-179.771
0.0360839,-0.0198978,-0.0103554,177.012,-179.664,-179.908
0.035945,-0.0199313,-0.00620819,177.011,-179.816,-179.873
0.0415458,-0.0219244,-0.00566985,177.01,-179.661,-179.836
0.0455925,-0.0198399,-0.00803369,176.922,-179.506,-179.827
0.0483666,-0.0201759,-0.0102257,176.938,-179.632,-179.951
0.0508839,-0.0202932,-0.00842271,176.996,-179.579,-179.854
0.0544755,-0.0231449,-0.0094783,177.081,-179.462,-179.917
0.0532271,-0.0247202,-0.00901279,177.046,-179.501,-179.986
0.0493482,-0.0252853,-0.0092888,177.129,-179.576,-179.88
0.0485826,-0.026931,-0.00850354,177.044,-179.682,-179.951
0.0469024,-0.026562,-0.0108397,177.002,-179.644,-179.857
0.046368,-0.0273914,-0.00833324,177.15,-179.721,-179.868
0.0448736,-0.0263966,-0.00537993,177.037,-179.753,-179.917
0.0447049,-0.025353,-0.0104505,177.037,-179.65,-179.822
0.0399388,-0.0255611,-0.00988145,177.181,-179.874,-179.832
0.0363537,-0.0230536,-0.0123736,176.98,-179.634,-179.885
0.0384177,-0.0215919,-0.0114462,176.855,-179.472,-179.899
0.0405827,-0.0221286,-0.0142982,177.076,-179.718,-179.805
0.0408414,-0.0225968,-0.0152654,177.008,-179.576,-179.778
0.0412644,-0.0234391,-0.0160516,176.967,-179.617,-179.706
0.0444836,-0.0238366,-0.0114341,176.914,-179.634,-179.913
0.0445447,-0.0237332,-0.0120834,176.961,-179.652,-179.81
0.0433407,-0.023389,-0.00714907,176.949,-179.561,-179.952
0.0432199,-0.0236577,-0.007995,176.961,-179.685,-179.935
0.0412476,-0.0229776,-0.00558224,176.987,-179.667,-179.938
0.0418435,-0.0236361,-0.00552102,177.126,-179.777,-179.901
0.0402536,-0.0234405,-0.00440131,177.005,-179.658,-179.959
0.0424066,-0.0227446,-0.00464993,177.081,-179.819,-179.912
0.0431725,-0.0229748,-0.00437154,177.029,-179.551,179.975
0.0459469,-0.0230144,-0.00468312,177.093,-179.621,-179.955
0.0439242,-0.0236724,-0.00865069,176.993,-179.588,-179.906
0.0444899,-0.0227032,-0.00885896,176.965,-179.534,-179.875
0.0401622,-0.0242795,-0.0100567,176.91,-179.678,-179.887
0.0425007,-0.0233531,-0.00842854,177.059,-179.74,-179.887
0.0418287,-0.0218206,-0.0110647,176.955,-179.643,-179.789
0.0418453,-0.0227222,-0.00785392,177.023,-179.563,-179.936
0.0408462,-0.0221826,-0.0087347,177.02,-179.612,-179.824
0.0427464,-0.0218706,-0.000860111,177.039,-179.802,-179.925
0.0412621,-0.0205922,-0.00189216,177.057,-179.699,-179.856
0.0451886,-0.0197451,-0.00370774,176.985,-179.667,-179.935
0.048828,-0.021118,-0.00462586,177.086,-179.55,-179.901
0.0479267,-0.021167,-0.00998472,177.045,-179.626,-179.878
0.0461739,-0.0256771,-0.00600403,176.962,-179.595,179.967
0.045963,-0.027328,-0.00775178,177.095,-179.651,-179.96
0.0433322,-0.0265241,-0.00706168,177.051,-179.663,-179.929
0.0384116,-0.0235638,-0.00948416,176.974,-179.634,-179.945
0.0405897,-0.021922,-0.010846,177.009,-179.669,-179.821
0.0392891,-0.0213964,-0.0108511,177.022,-179.685,-179.868
0.0406717,-0.0221459,-0.0111015,177.087,-179.755,-179.746
0.0383801,-0.0239996,-0.0123624,176.957,-179.645,-179.853
0.0431359,-0.0258837,-0.0104253,177.04,-179.67,-179.926
0.0422382,-0.0242391,-0.00863629,176.923,-179.647,-179.869
0.0440291,-0.0241286,-0.00864622,177.087,-179.697,-179.929
0.0473355,-0.0246831,-0.0100236,177.05,-179.656,-179.853
0.0503827,-0.0246931,-0.012137,177.121,-179.592,-179.771
0.0506124,-0.0244512,-0.0095716,177.055,-179.552,-179.907
0.0492518,-0.0234225,-0.0129042,177.077,-179.589,-179.89
0.0495388,-0.0223677,-0.0123409,177.017,-179.374,-179.898
0.0464983,-0.0231299,-0.0135167,177.023,-179.724,-179.831
0.0492548,-0.0264722,-0.0108846,177.158,-179.754,-179.873
0.0492857,-0.0256567,-0.013853,177.052,-179.737,-179.803
0.0464776,-0.0242255,-0.0116974,176.997,-179.604,-179.863
0.045554,-0.0226167,-0.011115,176.967,-179.595,-179.903
0.043064,-0.02266,-0.0111451,177.025,-179.668,-179.89
0.0406118,-0.0236692,-0.00763965,176.98,-179.717,-179.864
0.0389051,-0.023276,-0.00874942,176.991,-179.684,-179.882
0.043401,-0.0216824,-0.00932562,177.047,-179.654,-179.844
0.0458248,-0.0207817,-0.0100343,177.053,-179.695,-179.892
0.0438036,-0.0220964,-0.0072913,177.041,-179.61,-179.933
0.0423181,-0.0231662,-0.00595914,176.978,-179.743,179.962
0.0429281,-0.0207454,-0.00873174,176.941,-179.496,-179.819
0.0435246,-0.0197769,-0.0117425,176.935,-179.598,-179.924
0.0467266,-0.0176095,-0.0125834,177.001,-179.594,-179.855
0.0471862,-0.0212043,-0.0123572,177.07,-179.569,-179.857
0.0471203,-0.0241256,-0.0130487,177.171,-179.548,-179.954
0.046736,-0.0262606,-0.0129048,176.944,-179.555,-179.938
0.0446295,-0.0261074,-0.00892265,177.151,-179.678,-179.851
0.0447526,-0.0271567,-0.00853297,176.972,-179.62,-179.87
0.0448082,-0.0267462,-0.00798637,177.033,-179.725,-179.934
0.0479099,-0.0278432,-0.00979314,177.106,-179.639,-179.856
0.0494133,-0.0278432,-0.0104029,177.126,-179.659,-179.902
0.0451379,-0.0254896,-0.00993562,177.067,-179.749,-179.882
0.0409512,-0.0237628,-0.0110292,177.033,-179.698,-179.79
0.0429188,-0.024433,-0.0096002,177.02,-179.63,-179.879
0.0420507,-0.0220728,-0.0105961,176.989,-179.606,-179.831
0.0439585,-0.0209303,-0.0097611,177.048,-179.72,-179.866
0.0440388,-0.0172933,-0.00848574,177.028,-179.738,-179.787
0.0449243,-0.0184475,-0.00635989,177.068,-179.715,-179.871
0.0428371,-0.019051,-0.00712379,176.955,-179.566,-179.882
0.0438289,-0.021462,-0.00504106,177.075,-179.717,-179.817
0.042613,-0.0225096,-0.00609045,177.01,-179.655,-179.908
0.0451659,-0.0249724,-0.00671934,177.07,-179.477,179.978
0.0450162,-0.0253312,-0.00922079,177.091,-179.59,-179.849
0.0461774,-0.0241485,-0.0119971,177.016,-179.637,-179.948
0.0444929,-0.0229281,-0.0102268,177.041,-179.709,-179.903
0.0411028,-0.0208336,-0.00641202,177.04,-179.749,-179.976
0.0420822,-0.0196091,-0.00692869,177.057,-179.591,-179.801
0.0417687,-0.0217106,-0.00709324,177.037,-179.654,-179.899
0.0410866,-0.0215201,-0.00806526,177.028,-179.583,-179.906
0.0404359,-0.0224148,-0.00630346,176.973,-179.655,-179.926
0.0414742,-0.022571,-0.0081629,176.962,-179.634,-179.879
0.0374486,-0.0247087,-0.00485417,176.926,-179.708,-179.997
0.0384754,-0.024469,-0.00475583,176.979,-179.707,-179.918
0.0400575,-0.0229765,-0.00346098,176.891,-179.562,-179.895
0.0389357,-0.0201832,0.000383348,176.944,-179.782,-179.95
0.0415423,-0.020327,0.00190901,176.994,-179.662,-179.938
0.0443964,-0.0203441,-0.00295733,176.898,-179.585,179.997
0.0452365,-0.0217393,-0.00604846,177.117,-179.532,-179.879
0.0428067,-0.021216,-0.0108406,176.917,-179.689,-179.883
0.0431901,-0.0228025,-0.00831605,177.012,-179.711,-179.937
0.0421271,-0.0242429,-0.00896778,176.927,-179.64,-179.968
0.0461667,-0.0254307,-0.006743,177.068,-179.658,-179.864
0.0434581,-0.0243934,-0.0079734,177.177,-179.627,-179.864
0.0428167,-0.0249413,-0.00743704,177.107,-179.6,-179.924
0.0428718,-0.0245331,-0.010188,177.005,-179.697,-179.82
0.041598,-0.0247609,-0.00961807,176.953,-179.799,-179.892
0.0411314,-0.0256703,-0.0056803,177.072,-179.665,-179.849
0.0409192,-0.0225197,-0.0015784,176.882,-179.709,179.995
0.0412848,-0.0220816,0.0021556,176.993,-179.674,179.953
0.0426015,-0.0198313,-0.00164843,176.982,-179.674,179.982
0.0449693,-0.0196435,-0.00416876,176.958,-179.574,-179.99
0.044467,-0.019505,-0.00670021,176.995,-179.654,-179.853
0.0435087,-0.018379,-0.0069506,176.977,-179.661,-179.891
0.0432049,-0.0224663,-0.00798593,176.925,-179.68,-179.885
0.0436353,-0.0224192,-0.0115232,177.077,-179.565,-179.929
0.0433212,-0.0229697,-0.0127081,176.934,-179.613,-179.873
0.0385874,-0.0233994,-0.0113991,176.957,-179.739,-179.845
0.0400229,-0.0243171,-0.0098148,177.08,-179.708,-179.778
0.040429,-0.0217158,-0.0113963,177.019,-179.594,-179.96
0.0458825,-0.0195327,-0.00998368,177.068,-179.668,-179.932
0.0430757,-0.0180771,-0.00906865,177.105,-179.661,-179.812
0.0452134,-0.0216883,-0.00804804,177.067,-179.813,-179.882
0.0453894,-0.0231951,-0.00772305,177.038,-179.78,-179.855
0.0473891,-0.0248354,-0.0102181,177.117,-179.622,-179.882
0.0442457,-0.0259038,-0.009641,177.035,-179.611,-179.884
0.043638,-0.0249264,-0.00932777,177.012,-179.72,-179.933
0.0462109,-0.023906,-0.00710669,177.002,-179.539,-179.833
0.0480156,-0.0233318,-0.0069555,177.079,-179.597,-179.894
0.0466803,-0.0191352,-0.00997527,177.041,-179.599,-179.911
0.0449321,-0.0169253,-0.0102582,176.945,-179.562,-179.9
0.0450004,-0.015706,-0.0103535,176.97,-179.571,-179.783
0.0438301,-0.0183116,-0.010334,176.96,-179.587,-179.852
0.0444269,-0.0211105,-0.00843802,176.966,-179.599,-179.789
0.0445952,-0.0239596,-0.00782373,177.05,-179.593,-179.944
0.046992,-0.0244967,-0.00738063,177.004,-179.635,-179.929
0.0430743,-0.0245592,-0.00811782,177.072,-179.515,-179.994
0.0421502,-0.0237872,-0.0103924,176.968,-179.605,-179.802
0.0435431,-0.0272511,-0.0123362,177.158,-179.555,-179.975
0.0413681,-0.0254626,-0.00862577,176.992,-179.713,-179.899
0.0398463,-0.0244419,-0.00981912,177.071,-179.818,-179.854
0.0385874,-0.0264612,-0.00920868,177.022,-179.834,-179.837
0.038942,-0.023732,-0.0103599,176.986,-179.767,-179.891
0.0435005,-0.02217,-0.0120416,177.107,-179.621,-179.823
0.0429415,-0.0175757,-0.00985973,176.897,-179.814,-179.777
0.045353,-0.0192994,-0.0128917,177.048,-179.65,-179.899
0.049594,-0.0186066,-0.011338,176.99,-179.589,-179.872
0.0485455,-0.0201672,-0.0127848,177.039,-179.63,-179.809
0.0489611,-0.0224078,-0.0117751,176.989,-179.519,-179.855
0.0482005,-0.0249398,-0.0115439,176.994,-179.565,-179.867
0.0447777,-0.027677,-0.00983356,177.093,-179.548,-179.912
0.0431738,-0.0251866,-0.010052,177.026,-179.703,-179.88
0.0414895,-0.024675,-0.00841557,177.011,-179.688,-179.838
0.0416964,-0.0222452,-0.00610321,176.963,-179.755,-179.887
0.0381224,-0.0213602,-0.00469729,176.894,-179.701,-179.941
0.0405126,-0.0214599,-0.00387279,176.989,-179.742,-179.971
0.0415402,-0.0231461,-0.00270495,177.025,-179.758,-179.886
0.0441162,-0.026042,-0.0036313,177.053,-179.761,-179.919
0.0404448,-0.0255539,-0.00567199,176.959,-179.526,-179.923
0.04618,-0.0275044,-0.00469097,177.033,-179.587,-179.955
0.0457726,-0.0259414,-0.00766603,177.064,-179.515,-179.929
0.0427706,-0.0229322,-0.00768396,176.951,-179.693,-179.851
0.0422762,-0.0230007,-0.00827223,177.01,-179.737,-179.926
0.0435132,-0.0221253,-0.00761721,177.08,-179.681,-179.855
0.0435372,-0.0235777,-0.00613136,176.904,-179.646,-179.94
0.0434432,-0.0230253,-0.00590463,176.906,-179.59,179.975
0.0432002,-0.0242859,-0.0105329,177.038,-179.659,-179.899
0.0435637,-0.0238654,-0.0084075,176.991,-179.717,-179.889
0.0438531,-0.0231359,-0.00838477,176.996,-179.601,-179.896
0.0384119,-0.0224616,-0.00606384,177.144,-179.841,-179.953
0.0395908,-0.0241353,-0.00368002,177.023,-179.646,-179.962
0.0365233,-0.0249117,-0.00329553,177.01,-179.636,-179.881
0.0396902,-0.0233861,-0.00320218,177.047,-179.818,-179.944
0.0391183,-0.0220879,-0.00412889,176.966,-179.738,-179.988
0.0428605,-0.0214043,-0.00685791,176.956,-179.706,-179.889
0.0424528,-0.0237655,-0.0089996,176.943,-179.607,-179.911
0.0460737,-0.0245551,-0.00880915,177.005,-179.772,-179.917
0.0461146,-0.0224908,-0.010543,177.036,-179.745,-179.833
0.0515987,-0.0240393,-0.00974152,177.244,-179.771,-179.879
0.0520252,-0.0229954,-0.0138097,176.994,-179.537,-179.797
0.0500295,-0.0218953,-0.0117456,177.033,-179.625,-179.873
0.0498689,-0.0208036,-0.0142272,177.071,-179.594,-179.709
0.0475021,-0.0207836,-0.0148954,177.111,-179.648,-179.823
0.0457847,-0.0191478,-0.0166928,176.906,-179.427,-179.81
0.0424749,-0.0199803,-0.0157197,177.038,-179.68,-179.844
0.0449256,-0.0224917,-0.0126341,177.033,-179.547,-179.834
0.0437456,-0.0229683,-0.0115369,176.963,-179.732,-179.837
0.0421503,-0.0240886,-0.0117024,176.89,-179.657,-179.828
0.0362687,-0.0233655,-0.0119278,177.041,-179.702,-179.865
0.0391681,-0.0242241,-0.00997249,176.96,-179.734,-179.726
0.0408279,-0.0232309,-0.0100458,176.977,-179.548,-179.818
0.0412425,-0.0228539,-0.00769256,176.98,-179.699,-179.97
0.0398253,-0.0214375,-0.00809124,176.957,-179.6,-179.835
0.0432922,-0.0213659,-0.00847722,177.115,-179.785,-179.836
0.0434508,-0.0221514,-0.00908257,177.117,-179.7,-179.852
0.0458526,-0.0242748,-0.00788618,177.025,-179.768,-179.874
0.0485115,-0.0252869,-0.00559783,177.019,-179.601,-179.833
0.0476261,-0.0255951,-0.00979476,176.899,-179.556,-179.836
0.0498842,-0.0268995,-0.00955063,177.001,-179.621,-179.859
0.0469753,-0.0256915,-0.0125941,176.899,-179.602,-179.934
0.0479509,-0.024666,-0.0122913,176.973,-179.564,-179.923
0.0477608,-0.0232513,-0.0114642,177.007,-179.663,-179.931
0.0485928,-0.0226032,-0.0129787,176.977,-179.434,-179.895
0.0450033,-0.0215297,-0.0104387,177.016,-179.664,-179.884
0.0437613,-0.0213295,-0.0105536,177.088,-179.55,-179.837
0.0419483,-0.0244554,-0.0105219,177.133,-179.612,-179.884
0.043697,-0.0232036,-0.011623,177.092,-179.562,-179.873
0.0427644,-0.0228034,-0.0100067,177.03,-179.665,-179.942
0.0422741,-0.0249411,-0.00998494,177.061,-179.7,-179.827
0.0452441,-0.0245293,-0.0094886,177.046,-179.611,-179.803
0.0441136,-0.0261952,-0.00955008,177.136,-179.709,-179.895
0.0470713,-0.0268294,-0.00656285,177.052,-179.687,-179.875
0.0500642,-0.0243483,-0.00777883,177.028,-179.652,-179.919
0.0482337,-0.0234305,-0.0107427,177.035,-179.498,-179.789
0.0463186,-0.020718,-0.0128297,176.895,-179.736,-179.827
0.046243,-0.0190819,-0.0116488,176.905,-179.571,-179.963
0.0451517,-0.0200996,-0.0132967,177.053,-179.727,-179.824
0.0434258,-0.0204317,-0.0121204,176.978,-179.615,-179.883
0.0444595,-0.022797,-0.011691,176.982,-179.648,-179.85
0.0405007,-0.0208438,-0.00811929,177.027,-179.742,-179.942
0.0450176,-0.0246298,-0.00864823,177.083,-179.468,-179.974
0.0419271,-0.0243494,-0.00916903,176.959,-179.593,-179.91
0.0421034,-0.0263877,-0.00887557,176.994,-179.597,-179.826
0.0420961,-0.0242122,-0.0123454,177.051,-179.678,-179.896
0.0436074,-0.0275046,-0.0101564,177.023,-179.671,-179.866
0.0400621,-0.0268917,-0.0113591,176.927,-179.738,-179.801
0.0436767,-0.0260831,-0.00988194,177.055,-179.655,-179.908
0.0436132,-0.022973,-0.0108777,176.979,-179.717,-179.858
0.0430114,-0.0217938,-0.00680842,177.095,-179.659,-179.877
0.0397444,-0.021789,-0.00490546,177.106,-179.715,-179.833
0.0427354,-0.0239617,-0.00202792,177.096,-179.709,-179.984
0.0420398,-0.0241313,-0.00188792,176.985,-179.573,-179.945
0.0455993,-0.0253989,-0.00524463,177.095,-179.589,-179.903
0.0467242,-0.0260797,-0.00728938,177.071,-179.58,-179.971
0.0478836,-0.0239571,-0.0106869,177.122,-179.677,-179.905
0.0465231,-0.0274036,-0.0109331,177.071,-179.567,-179.923
0.0431069,-0.0269426,-0.0119078,177.03,-179.727,-179.829
0.0422985,-0.0272325,-0.0107545,176.933,-179.534,-179.856
0.045841,-0.0284609,-0.00711097,176.986,-179.75,-179.944
0.0465248,-0.0244178,-0.0063189,177.029,-179.695,-179.91
0.0423314,-0.0215101,-0.00491648,176.945,-179.763,-179.947
0.0425649,-0.0226681,-0.00647932,176.989,-179.611,-179.86
0.0421671,-0.0216707,-0.00523869,176.996,-179.611,-179.897
0.0430623,-0.0229126,-0.00647921,177.028,-179.675,179.999
0.0413243,-0.0226897,-0.00402962,177.01,-179.716,-179.886
0.0412596,-0.0249487,-0.00356233,177.026,-179.8,-179.976
0.0426189,-0.0268314,-0.00225996,176.935,-179.718,-179.911
0.0409887,-0.0257701,-0.00479216,176.91,-179.717,-179.927
0.0426048,-0.0247606,-0.0059013,177.017,-179.637,-179.927
0.0415529,-0.0247524,-0.0084145,177.024,-179.623,-179.935
0.0425097,-0.0236933,-0.00900698,177.031,-179.645,-179.914
0.0463108,-0.0263495,-0.0130946,176.977,-179.58,-179.943
0.0453646,-0.0269384,-0.011218,176.959,-179.526,-179.969
0.0444328,-0.0251306,-0.010848,176.916,-179.653,-179.914
0.0455965,-0.022866,-0.011494,176.95,-179.498,-179.904
0.0448429,-0.0231358,-0.00924946,177.052,-179.751,-179.821
0.0474457,-0.0240575,-0.00855572,177.121,-179.717,-179.914
0.0441205,-0.0232759,-0.00608236,177.007,-179.686,-179.946
0.0415106,-0.0209077,-0.0042704,176.866,-179.69,179.996
0.0409619,-0.0197059,-0.00175571,176.953,-179.79,-179.93
0.0405648,-0.0192286,-0.00150525,177.061,-179.76,-179.966
0.0467504,-0.0211137,-0.00408963,177.068,-179.596,-179.895
0.048357,-0.0247536,-0.00626498,177.072,-179.63,-179.863
0.0501991,-0.0244323,-0.00629341,177.034,-179.603,-179.986
0.047891,-0.0264597,-0.00453391,177.053,-179.69,-179.923
0.0485831,-0.0259152,-0.00546593,177.05,-179.743,-179.872
0.0495795,-0.0267053,-0.00722866,177.003,-179.622,-179.977
0.0464813,-0.0242929,-0.0083308,177.051,-179.587,-179.948
0.046634,-0.0262913,-0.00959324,177.072,-179.629,-179.897
0.0439038,-0.0245501,-0.00855667,176.99,-179.56,-179.92
0.0430905,-0.0232193,-0.00732033,177.014,-179.699,-179.909
0.038941,-0.0224975,-0.006252,177.052,-179.59,-179.999
0.0401697,-0.020479,-0.00962344,176.929,-179.537,-179.85
0.0406063,-0.0235866,-0.0128462,177.103,-179.572,-179.841
0.0413931,-0.0234844,-0.0118585,176.969,-179.706,-179.904
0.0434391,-0.0243803,-0.0134139,177.016,-179.585,-179.872
0.043721,-0.0247798,-0.0141462,177.044,-179.665,-179.895
0.0412262,-0.0227362,-0.0148979,177.051,-179.535,-179.855
0.0437125,-0.0203786,-0.0100578,177.048,-179.708,-179.839
0.0409327,-0.0208932,-0.00970184,176.96,-179.64,-179.867
0.0415939,-0.0197721,-0.00960109,177.052,-179.655,-179.928
0.0406839,-0.0203689,-0.00876563,176.983,-179.688,-179.866
0.041838,-0.0204056,-0.00761234,177.008,-179.693,-179.878
0.0455089,-0.0238891,-0.00597297,176.986,-179.706,-179.899
0.0428244,-0.022131,-0.00715017,177.095,-179.676,-179.885
0.0466987,-0.026237,-0.00497369,177.104,-179.779,-179.847
0.0443751,-0.0241863,-0.00425195,176.971,-179.683,-179.925
0.0424643,-0.0239473,-0.00499993,177.088,-179.739,-179.835
0.0422406,-0.0226623,-0.00842408,177.041,-179.621,-179.878
0.0431538,-0.0210403,-0.00591248,176.997,-179.631,-179.872
0.0434078,-0.0228239,-0.00876844,176.991,-179.656,-179.879
0.0495711,-0.0273074,-0.0116009,177.161,-179.676,-179.904
0.0479813,-0.0290573,-0.00958886,177.024,-179.701,-179.922
0.0481649,-0.0265758,-0.00977059,177.028,-179.573,-179.795
0.0499448,-0.0245128,-0.0102146,177.07,-179.597,-179.835
0.0466989,-0.0234378,-0.0148394,177.037,-179.627,-179.777
0.0462172,-0.0232404,-0.0106907,177.005,-179.493,-179.926
0.0444874,-0.0238239,-0.00904725,177.085,-179.696,-179.825
0.0449648,-0.0237405,-0.00570902,177.075,-179.628,-179.857
0.0453359,-0.0244974,-0.00638806,177.087,-179.592,-179.927
0.043789,-0.0244682,-0.00946401,177.098,-179.508,-179.922
0.0456469,-0.0243195,-0.0113187,177.016,-179.662,-179.905
0.0481753,-0.0273582,-0.00856179,177.073,-179.623,-179.981
0.0463701,-0.0278296,-0.00914512,177.052,-179.626,-179.933
0.0478824,-0.0262502,-0.0106404,177.109,-179.619,-179.961
0.0458965,-0.0237835,-0.0119339,176.997,-179.597,-179.896
0.0460953,-0.0205755,-0.0105809,176.981,-179.629,-179.837
0.0406703,-0.0187802,-0.0108688,176.987,-179.602,-179.908
0.0386643,-0.0220488,-0.011139,177.053,-179.683,-179.83
0.0388498,-0.0223402,-0.0117286,177.045,-179.736,-179.826
0.0403663,-0.0244443,-0.0150706,177.124,-179.657,-179.891
0.0463744,-0.0254368,-0.0157479,177.041,-179.638,-179.853
0.0466136,-0.0300134,-0.0165534,177.045,-179.585,-179.728
0.0491443,-0.0282977,-0.0163566,177.165,-179.481,-179.756
0.0486347,-0.028072,-0.0148172,177.106,-179.647,-179.868
0.0511709,-0.0257115,-0.013908,177.02,-179.593,-179.899
0.0463022,-0.0222609,-0.00993334,176.909,-179.63,-179.933
0.0457799,-0.0215605,-0.00677017,176.984,-179.735,-179.914
0.0448087,-0.0187186,-0.00646532,176.888,-179.552,-179.937
0.0402428,-0.0174287,-0.00559674,176.982,-179.744,-179.914
0.041546,-0.017507,-0.0059353,176.952,-179.655,-179.956
0.0383963,-0.0184507,-0.00817943,176.959,-179.633,-179.832
0.0393193,-0.0210213,-0.0089664,177.033,-179.828,-179.867
0.0376135,-0.0234828,-0.00581931,177.059,-179.691,-179.894
0.0347373,-0.0230129,-0.00723507,176.897,-179.769,-179.894
0.0340071,-0.0226567,-0.00776938,176.927,-179.684,-179.856
0.0369063,-0.0242145,-0.00482681,177.021,-179.759,-179.994
0.0366994,-0.0244839,-0.00564863,176.966,-179.717,-179.892
0.0433005,-0.0240658,-0.00999355,177.242,-179.879,-179.769
0.0456368,-0.0252001,-0.00781541,176.931,-179.595,179.938
0.0519918,-0.0247043,-0.00877998,177.1,-179.739,-179.908
0.0546606,-0.0241358,-0.00973102,177.064,-179.57,-179.876
0.0540881,-0.0221717,-0.0119285,177.102,-179.555,-179.882
0.0526014,-0.0206525,-0.00926407,177.061,-179.568,-179.794
0.0481023,-0.0179566,-0.00990105,176.991,-179.562,-179.827
0.0473973,-0.0169187,-0.00775009,177.086,-179.575,-179.814
0.0440148,-0.0180778,-0.00940696,177.086,-179.592,-179.861
0.0443825,-0.0207369,-0.0107672,177.024,-179.618,-179.829
0.0401471,-0.0222819,-0.0112428,177.035,-179.592,-179.946
0.0379772,-0.0214774,-0.0122238,177.012,-179.666,-179.794
0.0411318,-0.0234549,-0.0111465,177.117,-179.687,-179.808
0.0420933,-0.0234063,-0.0122431,176.952,-179.605,-179.887
0.0426871,-0.0271577,-0.0123548,177.015,-179.688,-179.893
0.044866,-0.0263209,-0.012148,177.01,-179.612,-179.932
0.0452648,-0.0234148,-0.0116042,177.018,-179.521,-179.897
0.0441611,-0.0246952,-0.0135682,177.071,-179.649,-179.826
0.0452859,-0.0209243,-0.012722,176.98,-179.643,-179.828
0.0444963,-0.0237065,-0.0128024,177.053,-179.731,-179.768
0.0457378,-0.0240345,-0.00898265,176.951,-179.524,-179.976
0.0449116,-0.0234689,-0.00719739,176.961,-179.626,-179.84
0.0427572,-0.0238893,-0.00334309,176.954,-179.621,-179.894
0.0430394,-0.0225602,-0.00648036,176.891,-179.665,179.979
0.043948,-0.0227289,-0.00735988,176.952,-179.587,-179.94
0.0437383,-0.0212051,-0.00586358,176.973,-179.746,-179.971
0.0463559,-0.0215183,-0.00339865,177.009,-179.644,-179.917
0.0434885,-0.0215072,-0.00183519,177.011,-179.648,-179.972
0.0441822,-0.0201842,-0.00661934,177.067,-179.665,-179.914
0.0438217,-0.0210712,-0.00735486,176.991,-179.636,-179.957
0.0438634,-0.022475,-0.0101031,177.056,-179.61,-179.934
0.0422229,-0.0245839,-0.0061899,177.05,-179.616,-179.883
0.0420645,-0.0211854,-0.00651836,176.995,-179.693,-179.992
0.045571,-0.0213149,-0.00625268,176.923,-179.631,-179.883
0.0463187,-0.0234937,-0.0100279,177.087,-179.63,-179.91
0.0436364,-0.0244026,-0.00757175,176.924,-179.69,-179.9
0.0446003,-0.0238872,-0.00901492,177.107,-179.662,-179.825
0.0421999,-0.0230191,-0.00746716,177.008,-179.639,-179.908
0.0418149,-0.0235286,-0.00649177,177.052,-179.576,-179.924
0.0417884,-0.0238302,-0.00831071,176.987,-179.585,-179.96
0.0402925,-0.0266626,-0.00830538,177,-179.664,-179.861
0.0455173,-0.0280293,-0.00442496,177.033,-179.768,-179.96
0.0465429,-0.028392,-0.00905736,177.026,-179.622,-179.932
0.0469694,-0.0270393,-0.00876994,176.957,-179.576,-179.928
0.0467851,-0.0278076,-0.00655711,177.109,-179.733,-179.906
0.0424551,-0.0241117,-0.00540414,177.068,-179.768,-179.968
0.0444692,-0.0218231,-0.0082276,177.082,-179.65,-179.873
0.0398841,-0.0223487,-0.0101506,176.941,-179.639,180
0.0395631,-0.0192662,-0.0123041,176.92,-179.757,-179.832
0.0401161,-0.0214252,-0.0121075,177.072,-179.635,-179.82
0.0421625,-0.0218637,-0.00730671,177.043,-179.771,-179.894
0.0461514,-0.0230245,-0.00749319,177.054,-179.641,-179.87
0.0467729,-0.0230374,-0.00520504,177.02,-179.681,-179.927
0.043904,-0.0198362,-0.00797208,176.946,-179.579,-179.848
0.0423936,-0.0201865,-0.00850109,176.998,-179.748,-179.873
0.0403521,-0.020845,-0.00886406,177.001,-179.666,-179.821
0.0403469,-0.0220571,-0.00901949,177.035,-179.673,-179.854
0.0428861,-0.0262764,-0.00894209,177.064,-179.689,-179.922
0.0430669,-0.0242566,-0.00860558,176.966,-179.724,-179.844
0.047177,-0.0252622,-0.0102404,176.936,-179.396,-179.923
0.0444804,-0.0283458,-0.00882238,177.088,-179.701,-179.993
0.0457199,-0.0269282,-0.00569543,177.025,-179.587,-179.864
0.0450925,-0.0288244,-0.00538597,177.103,-179.654,-179.909
0.0441733,-0.0274691,-0.00876808,177.025,-179.598,-179.916
0.0418487,-0.0263965,-0.0122193,176.997,-179.477,-179.93
0.0433103,-0.0254695,-0.0108226,177.054,-179.69,-179.903
0.0453908,-0.0238427,-0.00909836,176.974,-179.563,-179.821
0.0459862,-0.0235352,-0.0101874,177.045,-179.704,-179.972
0.0481914,-0.0236124,-0.0117311,177.05,-179.609,-179.803
0.0434136,-0.0247469,-0.013886,176.983,-179.804,-179.862
0.0435485,-0.0276767,-0.0113797,177.114,-179.678,-179.83
0.0444485,-0.0266583,-0.012526,177.018,-179.673,-179.893
0.0437769,-0.0250825,-0.0100768,176.93,-179.481,-179.954
0.0443341,-0.0249788,-0.01128,176.946,-179.73,-179.926
0.0428662,-0.0263632,-0.00881231,176.933,-179.5,179.896
0.0464508,-0.0264353,-0.00916354,177.054,-179.559,-179.896
0.0475989,-0.0237194,-0.00880352,177.025,-179.588,-179.873
0.0484119,-0.0255146,-0.00690001,177.043,-179.61,-179.966
0.0464015,-0.0257146,-0.00680921,177.048,-179.537,-179.929
0.0439779,-0.0256182,-0.00690376,176.987,-179.526,-179.951
0.039796,-0.025275,-0.0117574,176.994,-179.535,-179.922
0.0401812,-0.0233633,-0.0083149,177.012,-179.685,-179.886
0.0395373,-0.023618,-0.00854923,176.962,-179.637,-179.919
0.0401152,-0.0222757,-0.00901111,177,-179.754,-179.834
0.0432794,-0.0209246,-0.00778543,176.983,-179.719,-179.945
0.0467992,-0.0193405,-0.00856144,177.09,-179.776,-179.829
0.0469214,-0.0194504,-0.00812473,177.004,-179.661,-179.862
0.0459573,-0.0206598,-0.0068672,177.059,-179.524,-179.853
0.045986,-0.0199913,-0.00944091,176.993,-179.619,-179.877
0.0467455,-0.0217514,-0.00901411,177.04,-179.479,-179.862
0.0482432,-0.023823,-0.0117975,177.09,-179.68,-179.83
0.0473569,-0.0217848,-0.0136708,176.991,-179.661,-179.761
0.0470544,-0.0235164,-0.0142424,176.975,-179.769,-179.819
0.0473345,-0.0218269,-0.0178595,177.039,-179.62,-179.761
0.0443121,-0.0242348,-0.0167559,177.016,-179.642,-179.75
0.0433618,-0.0244922,-0.011655,177.001,-179.658,-179.976
0.0438763,-0.0271674,-0.00571932,177.095,-179.646,-179.938
0.0433924,-0.0291866,-0.00568113,177.048,-179.639,179.983
0.0441019,-0.0293395,-0.00478151,177.105,-179.669,-179.948
0.0435976,-0.0275034,-0.00581631,177.012,-179.615,-179.875
0.0472048,-0.0270272,-0.00676103,177.114,-179.539,-179.998
0.0490034,-0.0267382,-0.00853713,177.103,-179.607,-179.814
0.0490082,-0.0254611,-0.00904665,176.954,-179.546,-179.933
0.0498442,-0.0262989,-0.00711282,177.078,-179.568,-179.985
0.0508315,-0.0251234,-0.00525302,177.128,-179.643,-179.892
0.0514224,-0.0264051,-0.00617408,177.067,-179.576,-179.975
0.0496806,-0.025023,-0.00798565,177.089,-179.499,-179.913
0.0469075,-0.0247889,-0.00812466,177.032,-179.614,-179.87
0.0453458,-0.0246664,-0.00586296,177.013,-179.674,-179.926
0.0470822,-0.027119,-0.00649522,177.056,-179.659,-179.921
0.0461118,-0.0242946,-0.00765527,176.988,-179.7,-179.979
0.0435553,-0.0224708,-0.00589983,177.052,-179.6,-179.847
0.0425173,-0.0215578,-0.00801883,176.977,-179.699,-179.904
0.043332,-0.0183047,-0.0116905,177.069,-179.681,-179.789
0.0380525,-0.0200587,-0.0107608,176.965,-179.709,-179.923
0.0394372,-0.0224565,-0.00930751,177.094,-179.657,-179.844
0.0416586,-0.025169,-0.00809861,177,-179.613,-179.858
0.0440636,-0.0258945,-0.00546551,177.087,-179.719,-179.959
0.0480939,-0.0269461,-0.00623559,177.091,-179.624,-179.871
0.0482447,-0.0298457,-0.0078848,177.058,-179.636,-179.923
0.0443845,-0.027465,-0.00693953,177.008,-179.584,-179.908
0.0451657,-0.0272101,-0.00804269,176.965,-179.695,-179.852
0.0452985,-0.026697,-0.00949341,177.021,-179.618,-179.864
0.0465014,-0.0249085,-0.0110891,177.034,-179.744,-179.807
0.0477364,-0.0232138,-0.0130605,177.073,-179.586,-179.887
0.0482156,-0.0223433,-0.0131533,177.017,-179.608,-179.868
0.0483422,-0.0247078,-0.00924707,177.084,-179.676,-179.955
0.0465483,-0.0237455,-0.00983391,177.081,-179.654,-179.906
0.0450811,-0.0203274,-0.00939264,176.995,-179.63,-179.889
0.0459173,-0.0212194,-0.0123849,177.005,-179.525,-179.922
0.0441833,-0.0260169,-0.0123963,176.949,-179.615,-179.803
0.0428611,-0.0248577,-0.0139952,177.007,-179.628,-179.757
0.0453878,-0.0241691,-0.0184618,177.033,-179.596,-179.832
0.0460246,-0.0274262,-0.0146544,177.037,-179.5,-179.855
0.045667,-0.0279906,-0.0121442,177.019,-179.608,-179.93
0.045846,-0.0272256,-0.00699947,176.922,-179.49,-179.907
0.0462905,-0.0256523,-0.00705297,177.067,-179.849,-179.898
0.0443286,-0.0252708,-0.00354476,177.023,-179.607,-179.988
0.0440207,-0.0252407,-0.00222059,177.006,-179.756,-179.89
0.0446088,-0.0259751,-0.00252928,177.004,-179.613,-179.952
0.044944,-0.0260165,-0.00563849,177.026,-179.685,-179.88
0.0448185,-0.0233364,-0.00429478,176.906,-179.64,179.969
0.0466482,-0.0228433,-0.00479044,177.145,-179.717,179.983
0.0463129,-0.0224405,-0.00410395,177.013,-179.686,-179.938
0.0453772,-0.02383,-0.00539436,177.051,-179.725,-179.874
0.0446328,-0.0237076,-0.00682958,177.076,-179.643,-179.955
0.0428823,-0.0238362,-0.0107031,176.981,-179.544,-179.924
0.0424451,-0.0275321,-0.0160603,177.081,-179.621,-179.879
0.0399515,-0.0244109,-0.017139,176.948,-179.608,-179.8
0.0445725,-0.0247014,-0.0181784,176.997,-179.523,-179.835
0.0477666,-0.0241462,-0.0172353,177.069,-179.654,-179.804
0.0489325,-0.0236587,-0.0169613,177.035,-179.566,-179.813
0.0509725,-0.0252663,-0.01311,177.108,-179.709,-179.877
0.0506277,-0.0237213,-0.0118825,176.973,-179.484,-179.828
0.0508605,-0.0216218,-0.00848374,177.073,-179.619,-179.882
0.0504864,-0.0210489,-0.00713804,177.072,-179.708,-179.829
0.0521298,-0.0206092,-0.00677597,177.119,-179.573,-179.813
0.0518049,-0.0219149,-0.00542119,177.145,-179.608,-179.852
0.0513305,-0.0207705,-0.00789302,177.061,-179.62,-179.856
0.0508026,-0.0223808,-0.00936145,176.971,-179.579,-179.863
0.0478574,-0.0238109,-0.00873758,176.942,-179.605,-179.992
0.0456087,-0.0250516,-0.00708176,176.933,-179.526,-179.987
0.0424706,-0.0248364,-0.00653,177.033,-179.562,-179.895
0.0428732,-0.0233224,-0.00715249,177.019,-179.603,-179.89
0.0406555,-0.0235427,-0.00679355,176.951,-179.722,-179.906
0.0392923,-0.0218935,-0.0083967,177.002,-179.537,-179.929
0.0393452,-0.0226052,-0.00828903,176.922,-179.636,-179.978
0.0382672,-0.0241597,-0.0096791,176.981,-179.665,-179.906
0.0402462,-0.0248856,-0.0109714,176.951,-179.589,-179.859
0.0400471,-0.0264238,-0.0111602,177.035,-179.747,-179.864
0.0425095,-0.0247133,-0.0118073,176.877,-179.456,-179.886
0.041609,-0.0266693,-0.0121142,177.093,-179.786,-179.829
0.0448796,-0.0251239,-0.0165828,177.031,-179.552,-179.819
0.0470646,-0.0221783,-0.0197147,176.984,-179.696,-179.801
0.0485408,-0.0222902,-0.0148982,177.046,-179.545,-179.902
0.0491822,-0.0191859,-0.0161551,177.035,-179.617,-179.762
0.046181,-0.0225994,-0.0126457,177.055,-179.651,-179.833
0.0412749,-0.0225018,-0.00709719,177.079,-179.89,-179.833
0.0431213,-0.0225427,-0.00616768,177.016,-179.694,-179.902
0.0429571,-0.0241445,-0.00523515,176.968,-179.672,-179.878
0.0444565,-0.0256785,-0.00419017,177.008,-179.674,179.995
0.0461838,-0.0265873,-0.00726137,177.066,-179.593,-179.809
0.0458332,-0.0273242,-0.00897336,176.928,-179.558,-179.892
0.0480845,-0.0272944,-0.0120469,177.048,-179.537,-179.847
0.0490621,-0.0272296,-0.0138178,177.095,-179.551,-179.881
0.0468352,-0.0275412,-0.0118351,177.155,-179.608,-179.925
0.0466058,-0.0244663,-0.0112531,177.009,-179.671,-179.856
0.0478135,-0.0256802,-0.00539085,177.02,-179.644,-179.933
0.0474646,-0.0233083,-0.00551575,177.049,-179.649,-179.885
0.0492128,-0.0223198,-0.00554287,177.003,-179.649,-179.94
0.0510071,-0.0236727,-0.00872839,177.027,-179.646,-179.836
0.048303,-0.0218738,-0.00974394,177.039,-179.6,-179.992
0.0522739,-0.0227847,-0.0126721,177.1,-179.493,-179.812
0.0539166,-0.0243447,-0.0091116,177.151,-179.621,-179.905
0.0526144,-0.024865,-0.00826324,177.095,-179.62,-179.928
0.0479929,-0.0257109,-0.00976963,177.088,-179.641,-179.888
0.0439182,-0.0256637,-0.0102447,177.031,-179.714,-179.809
0.0424944,-0.0245953,-0.0112604,177.12,-179.674,-179.881
0.044281,-0.0216646,-0.0129058,176.917,-179.724,-179.844
0.0458473,-0.0228231,-0.0144496,177.014,-179.6,-179.847
0.044455,-0.0238412,-0.01135,176.999,-179.681,-179.849
0.0429492,-0.0259353,-0.0129445,177.025,-179.628,-179.876
0.0431543,-0.0268515,-0.0117663,177.17,-179.705,-179.895
0.0436683,-0.0255915,-0.0136259,177.011,-179.596,-179.872
0.0483657,-0.0238492,-0.012921,177.202,-179.681,-179.886
0.0522093,-0.0196625,-0.0141769,177.002,-179.582,-179.802
0.053859,-0.0178841,-0.0137467,177.019,-179.501,-179.848
0.0520378,-0.0178895,-0.0132148,176.882,-179.481,-179.863
0.0483215,-0.0168372,-0.0141034,176.981,-179.582,-179.794
0.0467944,-0.0195652,-0.0135042,176.94,-179.576,-179.806
0.0452053,-0.0240639,-0.0097195,177.067,-179.666,-179.904
0.0415602,-0.025164,-0.00661725,176.957,-179.706,-179.845
0.0413547,-0.0267341,-0.00598642,177.043,-179.617,-179.976
0.0400116,-0.0230398,-0.00642283,176.876,-179.682,-179.859
0.0441417,-0.0226996,-0.00904831,177.072,-179.581,-179.846
0.0427157,-0.0221699,-0.00887546,177.048,-179.654,-179.916
0.045367,-0.0228458,-0.00763606,177.035,-179.675,-179.952
0.0473711,-0.0245677,-0.00952155,176.973,-179.533,-179.994
0.0493508,-0.0217113,-0.00819528,177.036,-179.641,-179.8
0.0533913,-0.0253797,-0.00523957,177.133,-179.666,-179.977
0.0511637,-0.0219048,-0.00642342,177.096,-179.607,-179.89
0.0482088,-0.0229337,-0.00618704,177.051,-179.711,-179.887
0.0435907,-0.0219018,-0.0112776,177.086,-179.694,-179.839
0.0442578,-0.0232609,-0.0104439,176.996,-179.596,-179.913
0.0425078,-0.0237431,-0.00805479,176.994,-179.638,-179.896
0.0432382,-0.0243411,-0.00587687,177.076,-179.742,-179.88
0.0416344,-0.0232118,-0.006993,177.003,-179.567,-179.962
0.042474,-0.0234595,-0.00847451,177.056,-179.672,-179.941
0.0427429,-0.0219868,-0.00720909,177.055,-179.648,-179.921
0.0451817,-0.0231987,-0.00832998,177.135,-179.532,-179.899
0.0451509,-0.021247,-0.00818715,177.084,-179.66,-179.781
0.04338,-0.020125,-0.00631283,177.058,-179.63,-179.906
0.0429959,-0.0221382,-0.00986372,177.076,-179.639,-179.902
0.0437531,-0.0214132,-0.0100688,176.96,-179.543,-179.906
0.0431844,-0.0208201,-0.0119828,177.041,-179.722,-179.824
0.0467894,-0.0232198,-0.0119099,177.029,-179.509,-179.884
0.0489802,-0.0222486,-0.0118775,177.062,-179.65,-179.928
0.0454637,-0.0213449,-0.00717569,176.924,-179.771,-179.808
0.0438942,-0.0253609,-0.00690866,176.988,-179.658,-179.915
0.0454057,-0.0226192,-0.00726558,176.954,-179.661,-179.857
0.0450013,-0.0231027,-0.00968117,176.993,-179.615,-179.819
0.0456328,-0.0226071,-0.0113018,176.99,-179.619,-179.894
0.0452697,-0.0205138,-0.0112689,177.01,-179.532,-179.801
0.0488965,-0.0204662,-0.00950538,176.978,-179.603,-179.894
0.0503064,-0.0234751,-0.0055929,177.149,-179.627,-179.909
0.0455859,-0.0230542,-0.00638824,176.926,-179.671,-179.894
0.0488647,-0.022896,-0.00916382,177.039,-179.602,-179.91
0.04473,-0.023989,-0.0126774,176.973,-179.629,-179.873
0.0463091,-0.0235755,-0.0133702,177.031,-179.656,-179.87
0.0426828,-0.023706,-0.0137549,177.028,-179.678,-179.818
0.0452332,-0.0265993,-0.0093416,177.034,-179.645,-179.919
0.0454515,-0.0261077,-0.00947265,177.049,-179.55,-179.887
0.0491841,-0.0260744,-0.00600449,177.109,-179.682,-179.917
0.0489388,-0.0252783,-0.00416131,177.063,-179.616,-179.813
0.045244,-0.0233111,-0.00415105,177.096,-179.651,-179.929
0.0456079,-0.024183,-0.00416405,177.052,-179.632,-179.892
0.0459037,-0.0231033,-0.00443453,177.007,-179.659,-179.965
0.0484847,-0.0209138,-0.00735376,177.128,-179.655,-179.844
0.048686,-0.0204765,-0.0122141,177.02,-179.62,-179.842
0.0498085,-0.0264724,-0.0126032,176.992,-179.554,-179.843
0.0422179,-0.0292285,-0.0110025,177.09,-179.721,-179.879
0.041667,-0.0302262,-0.00587021,177.132,-179.754,-179.927
0.0430607,-0.0293402,-0.00673082,176.997,-179.681,179.93
0.0456582,-0.0248204,-0.00580697,176.998,-179.575,-179.887
0.045214,-0.0257588,-0.00562445,177.052,-179.661,-179.929
0.0466486,-0.0244377,-0.00675709,177.008,-179.667,-179.814
0.047226,-0.0205535,-0.0104924,176.985,-179.6,-179.772
0.0461495,-0.0217468,-0.00888299,177.119,-179.68,-179.861
0.0488009,-0.0231266,-0.00732199,176.966,-179.497,-179.903
0.0485785,-0.0224687,-0.0108,177.081,-179.653,-179.851
0.0470046,-0.0216469,-0.0101058,177.045,-179.613,-179.8
0.0451508,-0.0224966,-0.0107086,177.06,-179.813,-179.898
0.0417284,-0.0244556,-0.00857075,177.007,-179.727,-179.896
0.0449322,-0.0216284,-0.0124225,177.005,-179.67,-179.865
0.0438117,-0.0226975,-0.0127243,177.048,-179.47,-179.896
0.0450714,-0.0223531,-0.0136165,177.015,-179.682,-179.842
0.0491595,-0.0225886,-0.0131978,177.136,-179.763,-179.827
0.054513,-0.0241074,-0.0152282,177.04,-179.517,-179.727
0.050285,-0.0276148,-0.0127689,177.239,-179.625,-179.886
0.0508223,-0.0274485,-0.010079,177.07,-179.54,-179.864
0.0490428,-0.0280352,-0.00694628,177.071,-179.624,-179.915
0.0451517,-0.028114,-0.00314151,177.102,-179.728,179.984
0.0453418,-0.027638,-0.00295747,176.943,-179.7,-179.965
0.04638,-0.0259545,-0.0034505,177.048,-179.664,-179.962
0.0447673,-0.024748,-0.00693928,177.166,-179.781,-179.857
0.0483592,-0.0230803,-0.00762424,177.052,-179.588,-179.824
0.0495278,-0.024872,-0.00971486,177.031,-179.63,-179.833
0.0526796,-0.0246866,-0.00980039,177.015,-179.51,-179.883
0.0514593,-0.026958,-0.0103997,177.055,-179.655,-179.894
0.0469032,-0.0239617,-0.0156214,177.056,-179.623,-179.905
0.0481781,-0.0264916,-0.0170727,177.068,-179.554,-179.758
0.0470101,-0.0217829,-0.0116635,176.923,-179.685,-179.924
0.0508316,-0.0224729,-0.00926292,177.184,-179.625,-179.908
0.0501782,-0.0224735,-0.00815326,177.026,-179.591,-179.952
0.0479215,-0.0254867,-0.00721871,177.103,-179.608,-179.882
0.0470943,-0.0270004,-0.00726233,177.038,-179.622,-179.973
0.0467786,-0.0272549,-0.0106485,177.073,-179.588,-179.894
0.0415565,-0.0254784,-0.0145585,177.035,-179.599,-179.895
0.0411597,-0.0249728,-0.013852,177.154,-179.67,-179.852
0.0382992,-0.0233742,-0.0123538,176.953,-179.734,-179.86
0.0396066,-0.0244377,-0.00850115,177.034,-179.673,-179.919
0.0425223,-0.0264567,-0.0110237,177.101,-179.575,-179.837
0.0442798,-0.0264817,-0.00695374,177.041,-179.645,-179.931
0.0474943,-0.0282309,-0.00658122,177.072,-179.576,-179.866
0.0456229,-0.0258301,-0.00658209,176.934,-179.488,-179.917
0.045928,-0.0254242,-0.00298865,176.958,-179.557,-179.955
0.0456159,-0.0232652,-0.00481292,177.123,-179.536,-179.94
0.0445737,-0.0219002,-0.00211405,177.083,-179.588,-179.933
0.0441589,-0.022563,-0.00451094,176.973,-179.568,-179.98
0.0439482,-0.0224569,-0.0067718,176.984,-179.568,-179.89
0.04428,-0.020476,-0.00737272,177.004,-179.721,-179.931
0.0467315,-0.0223631,-0.00990732,176.927,-179.46,-179.962
0.0452494,-0.022489,-0.0123125,177.032,-179.647,-179.911
0.0435978,-0.0216179,-0.0114615,177.007,-179.598,-179.853
0.0429297,-0.0210895,-0.0109837,177.106,-179.76,-179.807
0.0425273,-0.0215003,-0.01474,177.022,-179.652,-179.82
0.0393606,-0.0207061,-0.0175363,176.966,-179.652,-179.85
0.0412475,-0.0223225,-0.0149619,176.979,-179.748,-179.767
0.0454501,-0.0235701,-0.0132874,177.037,-179.581,-179.826
0.0498265,-0.0239119,-0.010177,177.023,-179.739,-179.882
0.0513983,-0.0248943,-0.00691194,177.019,-179.578,-179.863
0.0531129,-0.0280007,-0.00902193,177.219,-179.688,-179.9
0.0492805,-0.029354,-0.00427092,177.105,-179.652,-179.983
0.0508085,-0.0304804,-0.00558638,177.071,-179.655,-179.927
0.0490524,-0.029475,-0.00360261,177.004,-179.645,-179.977
0.0524838,-0.029556,-0.00750575,177.072,-179.602,-179.986
0.0517563,-0.0258197,-0.00937117,177.055,-179.622,-179.873
0.0492612,-0.0232327,-0.0119304,177.074,-179.654,-179.826
0.0486072,-0.0221878,-0.0147567,177.225,-179.67,-179.827
0.0453778,-0.0197873,-0.00707088,177.08,-179.589,-179.782
0.0448675,-0.0194231,-0.000898668,177.044,-179.639,-179.812
0.0436563,-0.0186033,0.000761754,177.085,-179.699,-179.864
0.0411908,-0.0232169,-0.00138764,177.018,-179.903,-179.901
0.0429981,-0.0232192,-0.00309625,177.103,-179.728,-179.791
0.0429245,-0.0224667,-0.00394746,177.015,-179.687,-179.852
0.0464739,-0.023077,-0.00742919,177.033,-179.571,-179.839
0.049791,-0.0255462,-0.0117505,177.003,-179.553,-179.83
0.0497529,-0.027878,-0.013233,177.049,-179.612,-179.791
0.0524536,-0.0298754,-0.0127255,177.064,-179.636,-179.73
0.0464276,-0.0277699,-0.010587,177.071,-179.756,-179.833
0.0473674,-0.0264305,-0.0107543,177.008,-179.69,-179.769
0.0492551,-0.0251589,-0.0125195,177.03,-179.698,-179.846
0.0487202,-0.024912,-0.0102773,176.961,-179.63,-179.801
0.04823,-0.025553,-0.0101471,177.077,-179.663,-179.781
0.048172,-0.0248052,-0.00699804,176.951,-179.561,-179.934
0.0449806,-0.0235607,-0.006404,177.101,-179.604,-179.784
0.0467449,-0.0262843,-0.00694891,177.054,-179.74,-179.807
0.0445231,-0.0256988,-0.00629599,177.106,-179.539,-179.893
0.0450446,-0.0257691,-0.00456263,177.041,-179.696,-179.897
0.0443951,-0.0274606,-0.00805693,177.119,-179.737,-179.858
0.0474773,-0.029321,-0.00871662,177.019,-179.656,-179.815
0.0465269,-0.0321572,-0.00928519,177.111,-179.561,-179.942
0.0484463,-0.0316157,-0.00837563,177.092,-179.7,-179.849
0.0446387,-0.0287164,-0.00517036,177.054,-179.772,-179.969
0.0455028,-0.0282398,-0.0034647,177.171,-179.818,-179.929
0.0441327,-0.0250045,-0.00417691,177.181,-179.775,-179.857
0.0460969,-0.0196495,-0.00697646,177.279,179.976,-179.633
0.0507513,-0.0202274,-0.00167275,177.202,177.692,-179.872
0.0558886,-0.0220155,0.02725,177.383,172.026,179.761
0.0813692,-0.0194186,0.0778082,177.963,169.393,179.103
0.128844,-0.0227434,0.131709,176.869,171.015,-178.994
0.188751,-0.0297834,0.180715,176.517,175.352,-178.638
0.254187,-0.0398831,0.22164,176.681,-179.107,-179.289
0.318838,-0.0562265,0.251997,176.718,-173.451,-179.578
0.374272,-0.0738632,0.265012,176.667,-169.53,179.746
0.409171,-0.0918444,0.271324,176.854,-167.543,178.842
0.425555,-0.0960096,0.284943,177.416,-167.631,177.797
0.420473,-0.102669,0.298623,177.766,-169.854,177.045
0.398231,-0.102109,0.321342,177.806,-172.767,177.991
0.365972,-0.102179,0.352996,176.519,-175.392,-179.815
0.327119,-0.106074,0.389135,177.537,-177.712,179.902
0.286165,-0.113456,0.427136,176.362,-179.736,-179.303
0.244325,-0.122049,0.462299,175.691,179.236,-179.141
0.205258,-0.135401,0.494196,175.678,178.464,179.387
0.167696,-0.1432,0.519443,176.259,178.058,177.636
0.137849,-0.151119,0.53626,176.89,177.701,176.36
0.111242,-0.154435,0.551547,177.192,177.751,175.883
0.0926023,-0.155532,0.564303,177.106,177.814,176.768
0.078756,-0.148642,0.570251,177.339,177.973,177.238
0.0746878,-0.139947,0.574666,177.28,178.044,178.234
0.0693995,-0.127908,0.57755,177.419,178.303,179.02
0.065304,-0.114902,0.580344,177.702,178.66,178.876
0.0610235,-0.103077,0.582718,177.121,179.516,-179.502
0.060582,-0.0977026,0.591064,177.873,179.523,-179.639
0.0645924,-0.0937482,0.59692,177.689,-179.796,-179.381
0.071694,-0.0899683,0.607792,176.146,-179.016,-178.42
0.0775036,-0.0874905,0.616677,176.517,-178.809,-178.643
0.0808097,-0.0876216,0.629895,176.2,-178.511,-179.29
0.0808885,-0.095996,0.646607,176.901,-178.472,179.678
0.0799462,-0.102152,0.664067,176.236,-178.194,179.987
0.0758296,-0.111505,0.681734,176.524,-178.431,179.002
0.070638,-0.115798,0.699209,176.905,-179.238,178.107
0.0644264,-0.121397,0.721554,177.948,179.744,177.196
0.0579486,-0.12495,0.740553,177.291,179.71,178.154
0.0564681,-0.125866,0.756721,177.31,179.808,178.697
0.0557601,-0.126048,0.773387,177.465,-179.777,178.782
0.0564969,-0.126235,0.789804,176.753,-179.549,179.722
0.0542227,-0.124136,0.804043,177.16,-179.447,178.784
0.0514758,-0.120778,0.820337,176.812,-179.432,179.188
0.0517325,-0.116565,0.833726,176.802,-179.53,179.17
0.0549899,-0.115742,0.843214,176.534,-179.743,-179.997
0.0573845,-0.111976,0.856112,177.817,179.718,178.267
0.0548969,-0.105783,0.868813,177.221,179.671,179.074
0.0572674,-0.0991943,0.881955,178.052,179.852,179.007
0.0626926,-0.0929465,0.895809,177.702,-179.919,178.745
0.0646539,-0.0883565,0.906441,177.368,-179.165,179.712
0.0685276,-0.0833033,0.920557,176.777,-178.654,-179.444
0.0700155,-0.0803816,0.929782,176.417,-178.575,-179.567
0.0688527,-0.077848,0.943159,176.3,-178.678,-178.709
0.0676076,-0.0832365,0.956503,176.272,-178.924,-178.992
0.0634501,-0.0798656,0.971517,177.384,-179.666,178.937
0.0616243,-0.0827712,0.988465,176.99,-179.582,179.366
0.0580809,-0.0785594,1.0088,177.102,-179.658,179.287
0.0606772,-0.0791613,1.02619,177.169,-179.615,179.242
0.0656458,-0.0830461,1.03721,176.851,-179.654,-179.769
0.0666154,-0.0928467,1.04132,176.796,-179.621,-179.9
0.0686396,-0.103668,1.0414,176.623,-179.279,179.737
0.0704947,-0.111515,1.03575,176.934,-178.982,178.851
0.0709072,-0.11327,1.03532,176.793,-179.187,178.671
0.0720954,-0.116645,1.03221,177.023,-179.118,178.438
0.0731672,-0.115225,1.02806,177.221,-179.546,178.48
0.071225,-0.114671,1.02383,176.773,-179.431,-179.701
0.0677244,-0.114523,1.02384,176.857,-179.561,-179.715
0.0678274,-0.116031,1.01489,176.931,-179.853,179.662
0.0696023,-0.115198,1.01189,176.726,179.976,179.607
0.0743013,-0.113104,1.006,177.846,179.89,178.844
0.0773563,-0.115949,1.00515,176.789,-179.729,-179.392
0.0798951,-0.117609,1.00536,176.584,-179.198,-178.965
0.0851572,-0.121166,1.00031,176.284,-178.811,-179.035
0.0868969,-0.125769,0.996013,176.008,-178.633,-179.415
0.0894093,-0.130966,0.992636,175.13,-178.305,-179.232
